 0.247442033028133 -0.146641818091018  0.447477682917496 0.531947045514256 1751016247.31201
 0.338928072147176 -0.139349767411263  0.471763404988627 0.597370325722192 1751016247.32932
 0.409386893612553 -0.296370644709195  0.729361604654941 0.887356488707842 1751016247.36241
 0.382232677483957 -0.379519614574855  0.682365146723138 0.869344092431812 1751016247.38392
  0.16018322244725 -0.214792901983741  0.626059174333701 0.680988065434026 1751016247.39865
 0.148094253050274 -0.198110135812492  0.581972955853136 0.632354374573782 1751016247.41235
0.188212466708912 -0.27093491628924  0.60342214454895 0.687712109840568 1751016247.43015
 0.160621516512997 -0.412689839831688  0.874072203630348 0.979854271117115 1751016247.462
-0.164327338027293 -0.465757086998199   0.69045697530703 0.848919297025528 1751016247.48432
-0.269311060176457 -0.269692699401695  0.622033743991693 0.729512561857754 1751016247.49908
-0.234335893678618 -0.283683924629868  0.628916142672103 0.728646275412918 1751016247.51322
-0.138007654270064 -0.400250641515952  0.541589448319307 0.687434229000759 1751016247.52989
 -0.20188230783251 -0.525320190977209  0.693914261008445 0.893439852981166 1751016247.56251
-0.206741653059857 -0.264019421021989  0.581755114637243 0.671481480901224 1751016247.58422
-0.134911254021781 0.0221871211645171  0.553191591099389 0.569837039222945 1751016247.59924
-0.0785177971074854  0.0202658922126605   0.556639285106559 0.562514928311888 1751016247.61395
-0.0634947770059022  -0.043418612008235   0.540125647567945 0.545575363938331 1751016247.63025
-0.0871440084177325 -0.0569184952020226   0.658454292604855 0.666630218898703 1751016247.66243
-0.107956050326973 -0.109653468812297  0.365761851567623 0.396812454551196 1751016247.6851
-0.100532082209489 -0.189039172981721  0.320844845124454 0.385725191189172 1751016247.70012
-0.0215186822521766  -0.170008228542018   0.323682872154717 0.366246437776795 1751016247.71534
0.0652802479794173 -0.143029593161827  0.123658019592735 0.200025701113355 1751016247.73179
 0.140210186468808 -0.124208893971619    0.1893319778694 0.266333143966743 1751016247.76234
0.0285992191025674  0.070006255782646  0.260331489122486 0.2710927431908 1751016247.78507
-0.0310387898349189 -0.0375646392083783   0.271129825882453 0.275473939014784 1751016247.80039
-0.00734522695223306  -0.0537489716631892    0.273486500006776 0.278814938623788 1751016247.8171
 0.021469276198851 0.0408752748061611 0.0945268194054064 0.105199988107813 1751016247.83311
0.018567156204137 0.139715670181667 0.182457042295462 0.230555373103793 1751016247.86234
-0.00131856396145089  -0.0167755949006862    0.272300899601964 0.272820342202027 1751016247.88513
0.0159872492018647 -0.105677500644868  0.280147891534286 0.299843571568067 1751016247.9014
0.0405342544553736  -0.17617469843877  0.286513157023176 0.338777713702705 1751016247.91786
0.0223345736598719 -0.186861127639418 0.0418317773451693 0.192784366065039 1751016247.93498
0.0916939882614081 -0.367483189621694  0.036532361820992 0.380507944198327 1751016247.9615
-0.119252280875548 -0.174839103148473 0.0362786434345228 0.214722980729199 1751016247.98508
 -0.347454872126667 -0.0588086057727627   0.022547160123267 0.353117140205795 1751016248.00132
  -0.495827402104241 -0.00229472471462885    0.011112934943851 0.495957231787201 1751016248.01904
 -0.558877090430198  0.0687806010110107 -0.0365979482235722 0.564281652277774 1751016248.03532
 -0.525384577103587 -0.0157605175894344   0.022050156514451 0.526083222670438 1751016248.06145
 -0.352489083082759 -0.0301629077255536  0.0203755463853321 0.354363538735978 1751016248.08522
-0.224384514616378  -0.01166847102446 0.0168482818958645 0.225318503941684 1751016248.10297
-0.0955645276411854  0.0283680321324951  0.0242073965698541 0.102583245410951 1751016248.12003
0.0163218586824964  0.041465956716574 -0.308072195652649 0.311278502906186 1751016248.13753
 0.0466250728948001 0.00494064045741859  -0.417868152772332 0.420490309581489 1751016248.1625
-0.0457057607312139  -0.119917120871263  -0.332986537192753 0.356860149629645 1751016248.18507
-0.0919620863945924  -0.173614228322427  -0.313844842804388 0.370266810509596 1751016248.20306
0.0191922127992871 -0.307087676219185 -0.310976325305632 0.437467092269152 1751016248.22105
 0.195349369542735 -0.440538436314864 -0.290115298816222 0.562496557019432 1751016248.23913
 0.119046654335474 -0.550043145045654 -0.378205792831125 0.67805544688558 1751016248.26244
-0.151645387646439 -0.429950578408473 -0.368112931144762 0.585970096117718 1751016248.28497
-0.299409204016915 -0.320722526037891 -0.325811996465272 0.546500015735457 1751016248.30318
-0.260740078365609 -0.342502720177524  -0.32561541976994 0.539739662603242 1751016248.322
-0.165224117957216 -0.441730841698072  -0.26484014037979 0.540893192431199 1751016248.34103
-0.117325370765709  -0.53179689331423 -0.268455627377159 0.607158630206672 1751016248.36248
-0.0220264671210225  -0.652685368673565   -0.27133574739737 0.707182044137202 1751016248.38417
-0.0942157972763333  -0.575791445180754  -0.254361253161944 0.636484133274249 1751016248.40321
-0.153955862777016 -0.453897148309502 -0.250651249670644 0.540879910782762 1751016248.42184
 -0.26881176841878   -0.2183844538052 -0.382851273012199 0.516262175402468 1751016248.44118
 -0.264644963670427 -0.0755407317314645  -0.348626082846082 0.444166077708834 1751016248.4624
-0.181964591294943  0.062998356916714 -0.196385651651422 0.275040414546472 1751016248.48419
-0.276565125439994 0.0615617537049736 -0.115757180235912 0.306068363123406 1751016248.50331
-0.275966178578729 0.0457755405422661 -0.113964238087342 0.302060555839573 1751016248.52209
 -0.162493580760885 -0.0349134675757532  -0.218004155712137 0.274133044185518 1751016248.54123
-0.0440277040409811   -0.11307497603299  -0.305832402377558 0.329025602760652 1751016248.56243
-0.0108841075425336  -0.321203888455074  -0.392535505513995 0.507320928845622 1751016248.58418
-0.158852847649521 -0.208778607326474 -0.361792247597102 0.446896368865207 1751016248.60323
 -0.250840227294794 -0.0586887268466657  -0.349526383448629 0.434204881380742 1751016248.62294
-0.152095290867715  0.140758099170345 -0.362009379281041 0.41712900962847 1751016248.64127
-0.138877521691866  0.209048338543842 -0.309648572084553 0.398585514128673 1751016248.66214
-0.228627585622202  0.305072733476965 -0.110400096495628 0.396898131672081 1751016248.68433
-0.432719250762692  0.166661395066498 -0.052738535826057 0.466694036545587 1751016248.70327
  -0.352996132895058 -0.00912517657030635  -0.0689879676122983 0.3597900476133 1751016248.72229
-0.00644855826204075   -0.201213004056046   -0.101320853380212 0.225375624757008 1751016248.74127
0.0295148484791845 -0.180218217317824 -0.132929058344411 0.225875777112765 1751016248.76234
 -0.145231091693593  0.0778655959248572 -0.0682491238664689 0.178362170685901 1751016248.78491
 -0.298688835718184   0.150492988945852 -0.0321925703302455 0.336005240865389 1751016248.80352
 -0.212275099246566   0.072631388562686 -0.0441211739306974 0.228654136970461 1751016248.82305
  0.130056107472234  -0.120683761913779 -0.0506520337934695 0.184512303134252 1751016248.84196
 0.146243953630746 -0.131979769953932 0.0753823585690507 0.210922861809899 1751016248.8624
 0.0410772222148647 0.00448824225903306   0.104632567381879 0.112496473990915 1751016248.88494
-0.170958351551438 0.0684810024733583 0.0814354733604153 0.201365692178127 1751016248.90398
-0.164886614128497 0.0191385353309967 0.0777506257685999 0.183300406057337 1751016248.92309
-0.0154036020070332    0.02476670276615   0.054900054151646 0.0621665220721857 1751016248.94181
0.0552372290740798  0.104394617918654 0.0392207011307972 0.124449391815932 1751016248.96243
 0.107566259893704 0.0562341656106421  0.106955130654318 0.161778186486087 1751016248.98513
  0.0262976821558074 -0.00151463245866364     0.11397925531102 0.116983472505766 1751016249.00414
 -0.0884611831471445 -0.00672758110976419    0.120387152439428 0.149545002403475 1751016249.02325
-0.256159296717142  0.124455470597807 0.0658585127778361 0.292308216035148 1751016249.04292
  -0.296968025302655    0.242092322006621 -0.00435100757230462 0.383167889695379 1751016249.06243
-0.160700279898839  0.150813366036212  0.169233488205604 0.277865479800881 1751016249.08515
0.0156193121424008 0.0690807006712452  0.254620494282084 0.264287158646584 1751016249.10419
0.0342999486719065 -0.054856867147057  0.243282004944468 0.251737752992842 1751016249.12326
0.00152920757704853   -0.19510104064925   0.141928708542524 0.241268549228412 1751016249.14193
-0.0683882403220163  -0.157613906025319  -0.387660350879776 0.424027879308815 1751016249.16238
 -0.187625853195891 -0.0808593725119855  -0.316511626508525 0.376724446546265 1751016249.18507
 -0.393143461479955 -0.0491207631499189  -0.118356589139912 0.413500801534538 1751016249.20441
-0.412430737263393 -0.160952289144944 -0.128982774501545 0.461130468022598 1751016249.22334
-0.191634053899396 -0.368826909538566 -0.160688363890829 0.445620522534137 1751016249.24301
-0.0480990978732472  -0.403395691752246  -0.169151143782149 0.440061037565589 1751016249.26247
0.0724319091604235 -0.385559488878474   -0.1171687952364 0.409427682876969 1751016249.2853
-0.0467957511227584  -0.333602026490934 -0.0650866622499217 0.343098277472849 1751016249.3051
 -0.151123272037072   -0.29270357985594 -0.0511944617938635 0.333368417715351 1751016249.32346
 -0.17142299080613 -0.255239604757095 -0.046741049302479 0.310994892728761 1751016249.34309
 -0.12510303429207 -0.203893562273807 -0.118616083561176 0.267007732481997 1751016249.36244
-0.0523225885974396  -0.185925846626157 -0.0436290864985205 0.198014067454526 1751016249.38535
-0.0706659646371335 -0.0825684588329725  0.0766783194544088 0.13300674278585 1751016249.4052
-0.0724232561660193 0.00823538857544535  0.0877502722933618 0.11407479978609 1751016249.42399
  0.13536175586199 0.0674932878167622 0.0728913889298673 0.167902660581905 1751016249.4432
  0.351277487828669 0.00221256888808653  0.0825634572685584 0.360856610570518 1751016249.46243
0.494694524578995 -0.15113225653221  0.21436412055175 0.559924644745059 1751016249.48516
0.685187138418767 -0.22660586444705 0.357742024324831 0.805488043625926 1751016249.50504
 0.600139144826723 -0.286568408579581  0.362814741055705 0.757577047089273 1751016249.52337
   0.6268638760782 -0.387397889016631  0.356427696376475 0.818581789615777 1751016249.54304
0.739586450230656  -0.4512432918963 0.870620370884327 1.22824608936685 1751016249.56239
 0.797618531120041 -0.620257979028974  0.969341199991125 1.40019200245375 1751016249.58409
 0.823909200705994 -0.643595797703115  0.665659393783619 1.23941290551675 1751016249.60418
0.786344824780963 -0.70656511358441 0.669606907673491 1.25137758250594 1751016249.6233
 0.791325980341032 -0.682178064145905   0.66572527917751 1.23885183363489 1751016249.64236
  0.58870212872177 -0.629245040170524 -0.315299899719116 0.917569367243498 1751016249.66237
  0.44569048840505 -0.475127962744596 -0.476317502499136 0.807009885703748 1751016249.68403
  0.40238747288915 -0.331955646050472 -0.227303712839306 0.569014241608623 1751016249.70417
 0.336285384024718 -0.333527202676449 -0.208965046176037 0.517681992112129 1751016249.72324
 0.307013061383613 -0.462196086580105 -0.191936380432199 0.587130152899267 1751016249.74227
  0.227320958389425  -0.602866903715097 -0.0404430283426954 0.645568710719194 1751016249.76208
  0.25797462345918 -0.555316939643898 0.0662498633529169 0.615887046623527 1751016249.78335
 0.654494833255824 -0.430424525956656  0.167447257581577 0.801041411772932 1751016249.80409
 0.707510338537159 -0.376898317027273  0.165349278316845 0.818513044706594 1751016249.82325
 0.668459958731752 -0.344856481488058  0.167764846635804 0.770655404846235 1751016249.84299
 0.582634946301654 -0.301948185306954  -0.17052200567681 0.678022080526981 1751016249.86245
  0.63387539907089 -0.371334537278811 -0.225294932373707 0.768404298970681 1751016249.88331
 0.693991125451659 -0.493511350432476 -0.164566572623844 0.867328825784377 1751016249.90404
 0.598631071307851 -0.578803500338501 -0.116985262046166 0.840867530039837 1751016249.92326
 0.582850568212219 -0.504255251501745 -0.131959750499454 0.781921683600265 1751016249.94303
  0.618039664281565  -0.295872572827971 -0.0453229273032318 0.68670792460583 1751016249.96213
  0.403846893546264 -0.0817821372426747  -0.234179889214047 0.473941823340429 1751016249.9832
 0.294559098674661 -0.137570428430232 -0.547020895758146 0.636335246380829 1751016250.00331
 0.342765232059954 -0.367265377388643 -0.703326157709998 0.864314494762552 1751016250.02322
 0.393774186058785 -0.454393777451572 -0.701130664566348 0.923642800755907 1751016250.04224
 0.290748373286077 -0.439703777329095 -0.792856216585606 0.952100314328493 1751016250.06206
-0.0804796123203032  -0.250670487462534  -0.983787308700873 1.01840568048535 1751016250.08314
-0.174975473925667 -0.213811438619971  -1.04078156129001 1.07682775135187 1751016250.10337
-0.0429570943637629   -0.30120040064311  -0.917151335661171 0.966298900862884 1751016250.12325
-0.0619629228662906  -0.230354377984396  -0.922748383739641 0.953082957019394 1751016250.14302
-0.0770497222321716 -0.0187564777465293  -0.713354599663138 0.717748737382426 1751016250.16252
-0.194047212554043  0.161044703909259  -0.83464559840246 0.871907674177613 1751016250.18327
-0.149406218461896  0.113648252221287 -0.972660583254369 0.990609284008972 1751016250.20352
-0.0669762294046794  -0.125114490019795    -0.9635730793729 0.973967417427479 1751016250.22333
-0.0732897663230378   -0.16037555095937  -0.950665243578136 0.966879574994055 1751016250.24303
-0.272763727285305 -0.110225214186193  -1.12611591825934 1.16391009537766 1751016250.26206
-0.452200616962069  0.137391694987866  -1.18473403446074 1.27552209241634 1751016250.28312
-0.239882764639506  0.221386268573841  -1.09182656610471 1.13957925180136 1751016250.30341
  -0.0263370188451121 -0.000175917800934859    -0.900225718108974 0.900610911022923 1751016250.3233
-0.0262137157249758  -0.128426994098702  -0.863801354393842 0.873689551017965 1751016250.34311
-0.228688204216384 -0.138829557051413 -0.760006383297529 0.805718091711857 1751016250.36237
-0.661078400274646 0.0850209005131865 -0.824199108671111 1.05997989394517 1751016250.38316
-0.833781533380003  0.287987324088528 -0.874256569326748 1.24195527023003 1751016250.40351
-0.586053735582996  0.319600552334993 -0.844315187105653 1.07632319923937 1751016250.42344
-0.216943476471547  0.234316653905685 -0.920746317523784 0.974547355193541 1751016250.4431
 0.105747535409492  0.217603755171917 -0.749481513976256 0.787563632541677 1751016250.46236
-0.194271284052546  0.305713549257039  -0.78542491127268 0.86492450378889 1751016250.48303
-0.392197904267705  0.251359516653001 -0.679219760779287 0.823614160974107 1751016250.50393
-0.123180013889405 0.0595982724388456 -0.511856116718974 0.529832005566025 1751016250.52338
 0.0991765917446111 -0.0494957789341645  -0.533966599245172 0.545349573752314 1751016250.54316
  0.342345490284195 -0.0486303733341416  -0.166404606551858 0.383739287811689 1751016250.56249
   0.23647550285524 -0.0541650987910111  -0.123779431520555 0.272352472074756 1751016250.58305
0.0793296877170192 -0.128624848131013 -0.145041111441386 0.209462347256394 1751016250.6033
-0.242965395527015 -0.112309545475575 -0.231202589084389 0.353695143630576 1751016250.62334
 -0.409907656391963 -0.0399610299441065   -0.21436336862894 0.464298206428683 1751016250.64305
-0.464516397809358 0.0179223222188039 -0.496292259468577 0.680001985494103 1751016250.66208
 -0.224004387238979 -0.0303877894525675  -0.588044734604526 0.6299984072569 1751016250.68306
0.0199714328862442 -0.133563290850386 -0.423729098021494 0.444729535003493 1751016250.70338
0.0735120566347024 -0.139143980280833 -0.220532416517861 0.270923635835384 1751016250.72337
0.0202982265440597 -0.140211618987887 -0.211586872924785 0.254637626626796 1751016250.74312
 -0.0772586973520536   -0.111664939879423 -0.00288325181664633 0.135817076451562 1751016250.76208
-0.234220687296836 -0.087983792493747 0.0438722298727683 0.254018209294912 1751016250.78309
 -0.262551689925218 -0.0480975554948546   0.224989842240267 0.34909482069843 1751016250.80342
 -0.174664108832485 0.00691300094298692   0.360910660064529 0.40101352227138 1751016250.82338
-0.0969053739974117  0.0518150847409498   0.330518406756294 0.348307151406641 1751016250.84318
-0.030049884813233  0.195516626756186  0.282261039850812 0.344675269685929 1751016250.86245
-0.159658678620034  0.267256370069868  0.290070350649198 0.425508718274216 1751016250.88314
-0.275293987258292  0.184630761804312  0.389643551562987 0.511563676290281 1751016250.90339
 -0.12922896452083 0.0593429746794483   0.50024211432585 0.520061426045162 1751016250.92393
-0.0240229480510975   0.036145104671932    0.48353155110476 0.485475366562079 1751016250.94315
0.0564143841325222  0.134720315930353  0.667291560514216 0.683088700678706 1751016250.9624
-0.0140541136663095   0.184500116789981   0.808740833263472 0.829638202226825 1751016250.98239
-0.0589701452921454  0.0184931389364786   0.926401691446715 0.928460859777533 1751016251.00401
-0.178522904511962 -0.222336807782036  0.825051196026073 0.872933880425171 1751016251.02345
-0.232656760405777 -0.270062463830157  0.839270330786023 0.911831996954596 1751016251.04332
-0.324196358447088 -0.155817265263464  0.863969781667716 0.935855802257751 1751016251.06248
  -0.403160570941539 -0.00208459634544453     1.01009363157008 1.08758077219224 1751016251.08312
-0.453104845984855 0.0998939983776337   1.25277350960731 1.3359357315158 1751016251.10402
-0.434469450590727 0.0916514377312439   1.38664648576564 1.45600555150763 1751016251.12408
-0.478847919866409 0.0984053207170933   1.40712686724906 1.48962577785159 1751016251.14331
-0.49887984696317 0.209433545810464  1.40015806277115 1.50106166181133 1751016251.16239
-0.427778586733208  0.334841406375864   1.55735995577086 1.64938877119066 1751016251.18209
-0.380163611557163  0.351838439448023   1.68552444645177 1.76332280612824 1751016251.20335
-0.274893159874317  0.293163462091336   1.63271427925688 1.68144788279042 1751016251.22393
-0.219508680312992  0.278202134603518   1.61541343365633 1.65382618496263 1751016251.24321
 -0.2516080998712 0.237269510030697  1.62115170368743 1.6576297242387 1751016251.26204
-0.338958423235683  0.183879599142061   1.31187506494191 1.36737730918697 1751016251.2822
  -0.366989865486705 -0.00624141850921169     1.34971199106803 1.39872905721865 1751016251.30412
-0.405118859338515 -0.174711544427125   1.21527118904489 1.29287643526767 1751016251.32414
-0.409275788370408 -0.229539918890718   1.21442130146198 1.30192716491944 1751016251.3433
 -0.34972933123117 -0.100004270275638    1.2059400647163 1.25960426280825 1751016251.3625
 -0.297828423039732 0.00809426730172019    1.16900778759432 1.20637742609419 1751016251.38299
-0.258504016075012  0.113683449371683    1.1111152779566 1.1464403228675 1751016251.4041
-0.321365540527923  0.197173106937188  0.944661598342433 1.01712269668951 1751016251.42497
-0.285050064315963  0.124852352430045  0.930169227949771 0.980844759224681 1751016251.44329
-0.192770215781454 0.0179534124843583  0.895909094637579 0.916589213861143 1751016251.46237
-0.0663453385382393 -0.0210706992756321   0.734573605990909 0.737864527492822 1751016251.48201
  0.123325444261871 -0.0380508423875261   0.944554397954429 0.953331024620432 1751016251.50332
 0.357707470284183 0.0348377078362933   1.28960659528968 1.33875071271653 1751016251.52403
   0.4243111095795 0.0529389469826256   1.33228745074559 1.39922560769677 1751016251.54321
  0.52394083458957 0.0574014519895261   1.30930757125046 1.41141604106468 1751016251.56209
 0.62949211644606 0.104263311153084  1.35861647324763 1.50098963490764 1751016251.58145
 0.752080980835085 0.0822926578877268    1.4256490572944 1.61396193196757 1751016251.60308
  0.884004390031015 0.00525770357053567    1.23160808109333 1.51603095959658 1751016251.6234
 0.887789737276977 -0.164863207981942   1.18644445271764 1.49097315010864 1751016251.64315
 0.673165961831099 -0.164336220108422   1.23231923225877 1.41377844643436 1751016251.66209
  0.199828353335193 -0.0403836039855797   0.963774980542557 0.985101222914338 1751016251.68133
  0.212895927688328 -0.0255150828717655   0.998327587994913 1.02109434844777 1751016251.70308
   0.70082419343568 -0.0748850821494219   0.892951012044679 1.13759563797727 1751016251.72404
 0.881264553872851 -0.220158084403764  0.783079149072189 1.19929552227659 1751016251.74331
 0.970245769927975 -0.272225961194291  0.764298930033383 1.26476744204674 1751016251.76239
 0.954085270786047 -0.240958402941829  0.326125055592123 1.03667603800036 1751016251.78134
 1.11560102936402 -0.17033073287955 0.283978624652976 1.16371047711239 1751016251.80335
  1.27972271686265 -0.204113076343635  0.403659529770198 1.35731109034115 1751016251.82494
  1.04123706793099 -0.251500343063515  0.504458096030148 1.18402070287852 1751016251.84327
0.815020811424382 -0.29135538322648 0.568156096215575 1.03534932851518 1751016251.86238
 0.377293800773034 -0.448683678778751   0.40409822430544 0.712013364053657 1751016251.88143
0.284558000207274 -0.64254391618051 0.295392292850881 0.762294264951698 1751016251.90316
 0.426390587794495 -0.739636115060227  0.211598779801346 0.879570667811597 1751016251.92347
 0.537694247305054 -0.804239612690041 0.0959553169791412 0.972174820215656 1751016251.94343
 0.564525177639814 -0.676798951107015 0.0674393457398354 0.883908118393895 1751016251.96245
 0.424680994928358 -0.563521133849369 -0.574435334711272 0.909882393231713 1751016251.98175
 0.498554134640603 -0.550917974387845 -0.920425306458005 1.18289880566309 1751016252.0025
 0.982452162398988 -0.677003613092481 -0.899934011900351 1.49446557983708 1751016252.02337
  1.31406064591043 -0.858266132966792 -0.647962338174415 1.6980080470424 1751016252.04328
  1.30217982629986 -0.857603476762092 -0.589675910322129 1.66699541168865 1751016252.06237
  1.14348548007774 -0.608612939954101 -0.257305276580269 1.32067208616834 1751016252.08185
 0.868337447260127 -0.426335548559105 -0.151396823825426 0.979128653724246 1751016252.10202
  1.10861359104272 -0.838871192868011  0.176615622371571 1.40140003230132 1751016252.12317
 1.28273593989866 -1.11357356139217 0.635111774877624 1.81351165828278 1751016252.14311
 1.38853150622656 -1.21487028122585 0.738070367647872 1.98712793035311 1751016252.16237
 1.31499759112259 -1.07137700053577 0.308872340009571 1.72408510937199 1751016252.18149
  1.11010581112153    -1.117359474688 -0.297455709661939 1.60290580096627 1751016252.20147
  1.09402890224213   -1.2529115704186 -0.578594298000125 1.76109568278052 1751016252.22309
 0.977576894732314  -1.11269948729145 -0.446777976524912 1.54705116089961 1751016252.24225
 0.967466748623263 -0.913012549532174 -0.211012761224372 1.34688908626302 1751016252.26238
  1.13634302842811 -0.644789928385238  0.208080085947478 1.32299918827342 1751016252.28133
   1.2317915315017 -0.477654678803211  0.722933032224572 1.50602009891744 1751016252.30122
   1.3351001886698 -0.629021573442066   1.15952031534434 1.87687186971778 1751016252.32204
  1.16999687291181 -0.728438329541736   1.29125086626095 1.88860898075504 1751016252.34124
 1.12856532081015 -1.02359008750154  1.20045512644607 1.93971360287476 1751016252.36162
 1.05033173257995 -1.16794327460027 0.923744301991031 1.82224909839717 1751016252.38114
 1.02448685793517 -1.12789840138229 0.790033186669875 1.71635677001093 1751016252.40124
0.935417504488443 -1.08734691681835 0.650432944072078 1.57492610618785 1751016252.42326
 0.549093370484517 -0.880345825867901  0.257018068059841 1.06891093639381 1751016252.44248
 0.234994352939826  -0.94352819770929 -0.183817195529904 0.989573932133738 1751016252.4625
0.0605479364703548 -0.766181326269598 -0.428595265680249 0.879996465389823 1751016252.4814
 0.102901731090272 -0.561880656439602 -0.299567280964907 0.645011003136443 1751016252.50139
 0.200802237037354 -0.369853026657145  0.365731126464819 0.557559016241224 1751016252.52353
0.244935588481376 -0.37020423607766 0.874070960968062 0.980328854886049 1751016252.54323
 0.225778113585428 -0.447947971905401   1.02205765077789 1.13852315901873 1751016252.56235
 0.219263743832403 -0.452427535398093  0.834446597965431 0.974201410901193 1751016252.58139
 0.140904883882768 -0.465066380806968  0.489215262760879 0.689545138607404 1751016252.60118
0.0528490760507356 -0.478113533442245  0.363210209810264 0.602749726014422 1751016252.62499
0.0362015130220065 -0.381642319534621   0.25869497249437 0.462476484157531 1751016252.64329
 -0.13933252386863 -0.319828665060337 0.0921641466310697 0.360829817401656 1751016252.66246
-0.212246082138803 -0.169957175847601 -0.191187573765981 0.332395140409553 1751016252.68207
-0.184035939598559 -0.128170082548515 -0.402911657496034 0.461123194895485 1751016252.70128
-0.0997384077652234  -0.207477921780033  -0.331119580086791 0.403280317306159 1751016252.72499
 0.0212219671136577  -0.418181649457366 -0.0817567218322464 0.426626798731411 1751016252.74329
 0.0755827759234338  -0.560399004025573 -0.0624834661566754 0.568914741654757 1751016252.76248
0.0562457285642148 -0.592318542026561  -0.22443041386422 0.635903961205979 1751016252.78142
-0.048306585094833 -0.622743975007313 -0.427249159317988 0.756759822340854 1751016252.80108
-0.309493182038696 -0.690397582915369 -0.456506153246265 0.883647395840402 1751016252.82346
-0.630185045358322 -0.551272688816235 -0.374190445870645 0.91708955866307 1751016252.84318
  -1.0172301215875 -0.553340557906897 -0.455268911168506 1.24427194566389 1751016252.86238
 -1.58437784410352 -0.429570155951865 -0.823418075216633 1.83651871712872 1751016252.88148
 -2.42082174863831 -0.498035236479426   -1.3227145248763 2.80321079296119 1751016252.90127
 -3.31835682178722 -0.549730396511354  -1.79469287743154 3.81242941309788 1751016252.92318
 -3.08399146960953 -0.195125192246305   -1.6573088480565 3.50652960106141 1751016252.94312
 -2.15629390068823 -0.101654938021634  -1.31546002920807 2.52791855110356 1751016252.96252
 -1.24592808617502 -0.144176599943857  -0.99489591442603 1.60091897622357 1751016252.98217
 -0.755691992086863 0.00160435912027031  -0.703302341912791 1.03233092805186 1751016253.00128
  -1.3510104445835 -0.208949561178744 -0.648118386882223 1.51292649653092 1751016253.02321
 -2.39762975100708 -0.245868573263807 -0.744570547269672 2.52259094545558 1751016253.04315
 -2.87916817020988 -0.288516279496213  -1.05453645799724 3.07975618144187 1751016253.06247
 -2.88718414726513 -0.166459145529729  -1.59091836831133 3.30069117034296 1751016253.08301
 -2.37546124451086 0.0389859538525056  -1.79193255787482 2.97579540975899 1751016253.10215
 -2.1648842960546  0.15693693269913 -1.91508097623572 2.89463095431677 1751016253.12245
-2.11736534069291 0.192720774297395 -1.83616515352916 2.80924896615594 1751016253.14305
-1.69182752612534 0.272170658594312 -1.52846728478663 2.29620763133869 1751016253.16239
-1.20937450026052 0.526999530398466 -1.37181750279008 1.90320741063128 1751016253.18323
-1.30194955001575  0.69843704689239 -1.19684434816709 1.90140036104906 1751016253.20241
-1.89889968767424 0.856124726232533 -1.16400175677318 2.38614116524717 1751016253.22342
 -2.5958047143131 0.700272611414177 -1.33008133436875 2.99961667570759 1751016253.24312
-2.60817570776375 0.676725406994371 -1.19409071342165 2.94726829978549 1751016253.26249
 -2.31501911519704  0.829084837501137 -0.939556842771232 2.63238717370759 1751016253.28309
 -2.29813655899601  0.903020564021838 -0.755763246225099 2.58225790098221 1751016253.30304
-2.60091463701375 0.783519792517617 -0.72139332691304 2.81052816146963 1751016253.32327
 -3.06453598138994  0.490018303495967 -0.788809274667632 3.20214284359651 1751016253.34324
 -3.13999606769616  0.139919763990213 -0.766753658787977 3.23528422534515 1751016253.36241
 -2.97511548296149 0.0650472811997283 -0.818715293187407 3.08639563521069 1751016253.38141
  -2.9756097790499 0.0884512484610389 -0.658927625557402 3.04897733613329 1751016253.40134
 -3.47115933196253   0.28574836651066 -0.644826810586807 3.54208989898417 1751016253.42312
 -3.29393924648161  0.276594892541302 -0.631761443792678 3.36536224141693 1751016253.44338
 -2.38602940602816 0.0950390595283812 -0.575085955527998 2.4561947409586 1751016253.46247
 -1.82280451355552   0.24527873046195 -0.667362889612998 1.95656616976989 1751016253.48119
 -1.61302787019849  0.422710214435217 0.0063399809050791 1.6675080302004 1751016253.50014
-2.32829172544828 0.820541190794781 0.192293197006612 2.47612739538919 1751016253.52315
-2.41195079940686 0.693553170846839 0.156501402318561 2.51456066709053 1751016253.54347
-1.90507618696546 0.317208594137465 0.160680354198136 1.9379769726606 1751016253.56243
 -1.42041044629393   0.22538765850358 0.0985580582681202 1.44155441222184 1751016253.58115
-1.09654143701926 0.241441270160036 0.348952634552998 1.17578269726945 1751016253.60011
-1.04578626534151 0.489058540651228 0.461581925051415 1.24334429764849 1751016253.622
-1.23814309401039 0.440000611765242 0.444959380695791 1.3872951056169 1751016253.64327
-1.66512652476453 0.232838842984074 0.392941175757689 1.72663344050855 1751016253.66208
-2.01927820392449  0.12084717170338 0.385807841536017 2.05935334373291 1751016253.68038
-2.00282803686258 0.116092340543272 0.343058807958101 2.03531003105012 1751016253.69924
-1.78382072137491  0.22465740964897  0.37496014256184 1.83659533545817 1751016253.72109
-1.59629243286926 0.193924230893942 0.459456255044648 1.67238039598146 1751016253.74325
 -1.48037591723617 0.0658379993437029  0.548649292658697 1.58014668459143 1751016253.76208
  -1.4238481053557 0.0338943253729753  0.505655568286066 1.511350325423 1751016253.77974
 -1.29899272054062 0.0396635949835179  0.425979375033484 1.36763069457308 1751016253.79778
-1.34704723757243 0.115461184302311  0.45187779674415 1.42550380165132 1751016253.82022
 -1.31597810613572 0.0654210579252512  0.390254119000758 1.37418214514877 1751016253.84324
  -1.22147884783168 -0.0869947731690671   0.304092035181907 1.26176488781389 1751016253.86242
   -1.141757895432 -0.139273895766665  0.249153319444387 1.17689663369961 1751016253.87931
  -1.16169019233117 -0.0576210056093099   0.357089683254005 1.21669935692114 1751016253.89758
-1.10461769927258 0.069640901745767 0.571209963705909 1.24551633444894 1751016253.9194
 -1.06608860349249 0.0524464978718995  0.756419326813947 1.30823000409456 1751016253.9432
 -1.04376302737352 -0.025022599821529  0.635022115852228 1.22201492439135 1751016253.96237
 -1.22219199511465 0.0315477674089522  0.414717334865589 1.29102246393656 1751016253.9794
-1.35637958010558  0.24436174761081 0.235633899791095 1.39821370460797 1751016253.99748
-1.31791941400642 0.298965907538853 0.288613860542236 1.38187921186428 1751016254.01924
-1.16279628514076 0.114779706311623 0.440190598679086 1.24861416974323 1751016254.04305
-0.573643848524139 -0.212739275928429  0.631148006067169 0.879018242151265 1751016254.06253
-0.140578101150782 -0.250557952455459  0.745861413910835 0.799281389013219 1751016254.07945
 0.174283953611522 -0.266688526797285   1.03524403425063 1.08315644173097 1751016254.09739
 0.428907877781871 -0.207114397174869   1.39708732934461 1.47604584852765 1751016254.11835
 0.719608490135061 -0.337995264891414   1.79948408046635 1.96728750669934 1751016254.14237
   1.0429870941834 -0.304682588514058   1.68041262041635 2.00110972543519 1751016254.16245
  1.14792873012421 -0.272680884236708    1.5113680656217 1.91737546241047 1751016254.17972
 1.32763755678453 -0.32900974402431  1.62258994222382 2.12218449114436 1751016254.19762
  1.56645170834308 -0.379215602288489   1.90798755038408 2.49759722934076 1751016254.21897
  1.73653731323653 -0.585777602255212    2.1595425002803 2.83237021769462 1751016254.2433
  1.43923338582221 -0.464821792018725   1.69513001471255 2.27176534967415 1751016254.26208
  1.18349227348116 -0.456611416546195   1.52122324659194 1.98072413856187 1751016254.28032
  1.29524571200955 -0.579628834406935    1.6327526306597 2.16321801792636 1751016254.29833
   1.793367254313 -0.56086795894626  1.97187871210596 2.72379232531986 1751016254.31902
  2.38082082567622 -0.667773867061243   2.40979067167016 3.45272657804988 1751016254.34328
  2.12249357975119 -0.722270660883708   2.12414107201345 3.08846712747163 1751016254.36245
1.73115652651638 -0.7690768454414 1.83631053551853 2.63826050577852 1751016254.38121
  1.59329238240715 -0.739056148154247   1.61303307458719 2.38467194927802 1751016254.39953
  1.85977769709724 -0.693912892324326   1.64731986513901 2.57952532897737 1751016254.41995
   2.4248758661845 -0.863634938957718   1.80184182853666 3.14205700923088 1751016254.44321
  2.11076772923496 -0.885969693922147   1.55204977675643 2.76570808561893 1751016254.46239
  1.33446773925596 -0.982564325618641   1.37257112177636 2.15178723051972 1751016254.48126
 1.04047277260704 -1.34240383483303  1.29373569003636 2.13503716173393 1751016254.5002
 1.47070759143117 -1.68820943929569  1.37444180860775 2.6271890331054 1751016254.51986
 2.07915350604186 -1.86636507917284  1.54266014769955 3.19155107146077 1751016254.54306
 2.21845173919477 -1.59028869292902  1.21381549696306 2.98728878862789 1751016254.56202
 1.91802285209099 -1.49809389812367  1.20921459652755 2.7175902798608 1751016254.58123
 1.90643077815098 -1.56960777556252  1.19886702755307 2.7450735929555 1751016254.60018
 2.19641017679412 -1.68694676343868  1.36127135057055 3.08594665172378 1751016254.6197
2.34675798683487 -1.6948695380751 1.50766110008968 3.26387772329047 1751016254.64218
 1.81519833845847 -1.58629710092194  1.18894392580019 2.68791204451205 1751016254.66209
 1.60088399027721 -1.62044475687586  1.22305817471484 2.58544813507235 1751016254.68128
 2.11430637127001 -1.69788917004822  1.11709557939806 2.93274983571232 1751016254.70099
 2.49681202284064  -1.5937036764428 0.692694700096717 3.04200388448978 1751016254.7211
 2.47557566113051 -1.55879353014338 0.569552825232168 2.98038630790181 1751016254.74153
  2.3592770545357 -1.83876663305516 0.875057673820753 3.11656491724595 1751016254.76237
 2.24945745589906 -2.03181611372176   0.9287581982284 3.17031975621635 1751016254.78139
 2.17856037826053 -2.05401145518306 0.658909103086153 3.06581956185939 1751016254.80044
 1.97512200442637 -1.85550948038244 0.207868238113527 2.71794620413554 1751016254.8204
 1.85925277094414 -1.74662380837354 0.115862795769115 2.55361308378622 1751016254.84158
 1.85679258225178 -1.53221866116015  0.16592171580804 2.41306915252948 1751016254.86162
 1.86988251210707 -1.42210631635356 0.185435228963665 2.3565299081992 1751016254.88122
  1.81829316050146  -1.31154009514343 0.0255280184175605 2.24209257579154 1751016254.90042
  1.69564927074778  -1.22682111215456 -0.201147013802572 2.10256429432665 1751016254.92037
  1.55354412001601  -1.29984396883136 -0.291627012339276 2.04649456155386 1751016254.94229
  1.37793363632992  -1.16576276862972 -0.312323941117011 1.83173420098209 1751016254.96246
  1.24062799200568 -0.990765132173268 -0.254410784356911 1.60794844720702 1751016254.98128
  1.26631250824314  -1.00152493459551 -0.310509808982655 1.64408512693961 1751016255.00017
  1.33745179540311  -1.06421454914736 -0.409916642071411 1.75765797727858 1751016255.01927
 1.42558469189939 -1.18960733419885 -0.59385977988403 1.94939138233488 1751016255.04211
  1.12896657237493  -1.24216456077605 -0.715562090765421 1.82471022996215 1751016255.06239
 0.650931053838858  -1.17750252590433 -0.731782338590238 1.5315772348907 1751016255.08124
 0.329107869841956   -1.2221443500232 -0.840062352403888 1.51909629655658 1751016255.09953
0.0289249933859822  -1.13059503674493  -1.09439498711679 1.57377958437038 1751016255.11821
-0.185573948601535 -0.930428961026775  -1.47901842814751 1.75716568732628 1751016255.14151
-0.392569694012912 -0.552309521692226  -1.29093837512469 1.4579707338554 1751016255.16237
-0.573842962502987 -0.423117067246521  -1.01894794729368 1.24361518063407 1751016255.18138
-0.717954804927885 -0.596916547847858  -1.14476163876964 1.47724326927294 1751016255.20108
-0.769822230596197 -0.699497313311783  -1.42755885319135 1.76630887371816 1751016255.21944
-0.898151600724652 -0.883053878196127  -1.69729476532642 2.11359172265741 1751016255.24149
-0.899562380814259 -0.967696300510095  -1.47345351648082 1.97906894074634 1751016255.2625
 -1.00765434457287 -0.924574328792997  -1.26335468825418 1.86179215701792 1751016255.28221
 -1.17373097518368 -0.655958579292383  -1.43485058132586 1.96639829398423 1751016255.3021
 -1.28422941152702 -0.398612303484316   -1.6305648228203 2.11349913445431 1751016255.32133
  -1.2151626970901 -0.335965153139693  -1.63448517982114 2.06422740209949 1751016255.34153
 -1.24442747369907 -0.434936514882171  -1.39746027234853 1.92111028368163 1751016255.36244
 -1.42340743794232 -0.420260420139979  -1.11868042249232 1.85853529500877 1751016255.38218
 -1.60787564301577 -0.172058557603822  -1.09949915049717 1.95544537448431 1751016255.40216
 -1.78117900372926 0.0412929925204978  -1.18683787974547 2.14076806482066 1751016255.42176
    -1.92836622878517 -0.000554236089907205     -1.33032383271269 2.34272450778579 1751016255.44218
  -2.1925228046637 -0.183864197445081  -1.34054305485911 2.5764351290113 1751016255.46256
 -2.53484096229919 -0.248501985451823  -1.16052761828424 2.79892770426888 1751016255.48239
 -2.81477931726208 -0.134647776487167  -1.07123761603174 3.01474089410694 1751016255.50213
-2.52470640249584 -0.10577085653323 -1.02635049692075 2.72740265370274 1751016255.52142
 -2.20984631534693 -0.180481821804964  -1.21607207733059 2.52879926501049 1751016255.5418
 -2.36030450956953 -0.274739510738827  -1.38526038490519 2.7505391309056 1751016255.56237
  -2.6552674003102 -0.260160727878578  -1.31922924839084 2.97632229123296 1751016255.58237
  -2.63176422391496 -0.0851565311068736    -1.2905071237539 2.9323784205877 1751016255.60154
 -2.3844636081527  0.23343020980845 -1.13577785612748 2.65144256960722 1751016255.62146
-2.47767601012681 0.310371191770328 -1.07900072646588 2.72019323864183 1751016255.64182
-2.67973634950295 0.123215114771606  -1.0631095324016 2.88554513831247 1751016255.66218
 -2.15958009715326 -0.161109854799417  -1.00338210811561 2.38673799069368 1751016255.68236
 -1.56990793478382 -0.179393686761175  -1.17199827880497 1.9673263542353 1751016255.70148
 -1.16886065360859  0.154862565113478 -0.932489561424133 1.5032479581868 1751016255.72125
 -1.88378428251578   0.37308381892435 -0.853230484795876 2.10138930690667 1751016255.74152
 -2.39888034025795  0.316608128493157 -0.768015953248323 2.5386445395817 1751016255.76249
 -1.74451894996209 0.0999539618380025 -0.614026780269364 1.85212473882077 1751016255.78211
 -1.34973782907804  0.135357194155755 -0.718260168683399 1.53493043724174 1751016255.80105
 -1.44422434253943  0.398797330305107 -0.499806600704344 1.579439742551 1751016255.81934
 -2.17097411321834  0.520313862797476 -0.438981134749688 2.27520538693752 1751016255.83935
-2.52593363904882 0.513938606519209 -0.62950890245012 2.65344212268014 1751016255.86246
 -1.90249171006646  0.139770210673749 -0.616451373583754 2.00475003794904 1751016255.8814
 -1.74142201290782 0.0874389123524594 -0.655599012239722 1.86279528002488 1751016255.90038
  -1.72475222820289 -0.0544700573773836  -0.785281725536128 1.89589151174389 1751016255.91922
   -1.56311112254146 -0.00491510222562696   -0.704311235641992 1.71446634737876 1751016255.93912
   -1.2448149973199 -0.0266527972890945  -0.397193663705941 1.30691910830166 1751016255.96209
 -0.878135877517544 -0.0776627207011907  -0.109918011155794 0.888389603015852 1751016255.98141
  -1.22723152004568  -0.141716934982236 -0.0585553584876038 1.23677387725566 1751016256.0003
   -1.478512349154  -0.11687865621196 -0.192651825795449 1.49558487317207 1751016256.01928
     -1.23991205544 -0.0394952950130645  -0.350027817971777 1.28897682558986 1751016256.03929
   -1.03263731682312 -0.00236618439911529   -0.393658404358473 1.10513002232603 1751016256.06209
  -1.00436968389579 -0.0220644713446204  -0.259211229204302 1.037514223599 1751016256.08143
 -0.96865445164506 0.0027694495084658 -0.228655002064895 0.995279973932797 1751016256.10025
 -0.846717834118356 -0.0354945898608167  -0.014369364318215 0.847583290983474 1751016256.11919
-0.854419598647981 -0.109119958597103  0.094284379116606 0.866504218145194 1751016256.13931
-0.754867423381024 -0.262080066950318   0.15066135208616 0.813147976316131 1751016256.16241
-0.362527169527128 -0.338188563418878  0.180545313141893 0.527630612427084 1751016256.18134
-0.239707321686342 -0.288939029631985   0.21001441715922 0.430176031793311 1751016256.19935
-0.0915098786743247  -0.126586030436129    0.39625764386618 0.425932155770074 1751016256.21742
  0.178844456663975 -0.0299225352248035   0.548100544277751 0.577316987824955 1751016256.23579
 0.539523833859166 -0.149849792946862   0.76602313494055 0.948858456785024 1751016256.25959
 0.611303305258064 -0.357967773611493  0.774799049330011 1.04983152210557 1751016256.27928
 0.343297793803369 -0.442376045720374  0.772046397357178 0.953732447141048 1751016256.29909
0.041675449931644 -0.27886232048957 0.801299343894996 0.84945963732386 1751016256.31801
   -0.305675853672026 -0.000692968640485416     0.751684707375679 0.811460477796743 1751016256.33914
-0.610341085896032  0.159464207616348  0.723179230494962 0.959652684080414 1751016256.36249
-0.811729198008411  0.217017830250075  0.523851319501227 0.990162226349301 1751016256.3823
 -1.02506803596088 0.0684673459922042  0.424651910113243 1.11165709667088 1751016256.40124
  -1.0170340516855 -0.113272442635598  0.413283923573413 1.10362697956905 1751016256.41975
-0.855043521321397 -0.178251147578926  0.444854515355521 0.980187958913541 1751016256.43936
-0.514324222217403  -0.12955731988617  0.884026398837256 1.03093024911329 1751016256.46236
 -0.28635357966561 0.0567501052547638   1.03919266631615 1.07941666874243 1751016256.48213
-0.285225051300857  0.195054801132302    1.0547108902936 1.10987150942722 1751016256.5012
-0.291141695213816  0.283421556701165   1.02203182735017 1.09983649767209 1751016256.51936
-0.346045138752214  0.400620179907508   1.06675531607973 1.19088650634203 1751016256.53909
-0.345162473710015  0.427491738691602   1.15899551971793 1.28263671186873 1751016256.56242
-0.360738230203143   0.34637500459473   1.00620283458191 1.12363332936451 1751016256.58245
